X, Y, Z, Red, Green, Blue, Gray,
106.98275,295.8227179,96.344039,0.000852737,0.218300781,55.885,4.468918498,
106.9976667,295.8227095,95.77,0.040999634,10.49590625,126.952,214.8656973,
106.9976667,295.8227095,95.796902,0.000841324,0.215378906,55.137,4.409103681,
106.9976667,295.8227095,95.803179,0.000498672,0.127660156,32.681,2.613379716,
106.9976667,295.8227095,95.810353,0.000489487,0.125308594,32.079,2.565239984,
106.9976667,295.8227095,95.818424,0.000612564,0.156816406,40.145,3.210248422,
106.9976667,295.8227095,95.847119,0.000686646,0.17578125,45,3.598484967,
106.9976667,295.8227095,95.85788,0.000513626,0.131488281,33.661,2.691746722,
106.9976667,295.8227095,95.907201,0.017964127,4.598816406,153.297,94.14412348,
106.9976667,295.8227095,95.93231,0.000532028,0.136199219,34.867,2.788186119,
106.9976667,295.8227095,96.043506,0.003076401,0.787558594,201.615,16.12241215,
106.9976667,295.8227095,96.179811,0.001009827,0.258515625,66.18,5.292171892,
106.9976667,295.8227095,96.20761,0.000890549,0.227980469,58.363,4.66707507,
106.9976667,295.8227095,96.343915,0.000540848,0.138457031,35.445,2.834406659,
107.0125833,295.8227012,95.77,0.040117859,10.27017188,69.164,210.2446029,
107.0125833,295.8227012,95.796191,0.000699646,0.179109375,45.852,3.666616283,
107.0125833,295.8227012,95.802302,0.00056015,0.143398438,36.71,2.93556407,
107.0125833,295.8227012,95.809286,0.00048381,0.123855469,31.707,2.535492508,
107.0125833,295.8227012,95.830238,0.000486374,0.124511719,31.875,2.548926852,
107.0125833,295.8227012,95.857301,0.000549652,0.140710938,36.022,2.880547233,
107.0125833,295.8227012,95.865158,0.000572571,0.146578125,37.524,3.000656665,
107.0125833,295.8227012,95.88,0.000593033,0.151816406,38.865,3.107891517,
107.0125833,295.8227012,95.90619,0.017630661,4.513449219,131.443,92.39653925,
107.0125833,295.8227012,96.043252,0.003205444,0.82059375,210.072,16.79868742,
107.0125833,295.8227012,96.174204,0.000720764,0.184515625,47.236,3.777289687,
107.0125833,295.8227012,96.197775,0.001106934,0.283375,72.544,5.801077633,
107.0125833,295.8227012,96.334837,0.000446655,0.11434375,29.272,2.340774488,
107.0275,295.8226929,95.77,0.040120636,10.27088281,69.346,210.2591568,
107.0275,295.8226929,95.796191,0.000704971,0.180472656,46.201,3.694524533,
107.0275,295.8226929,95.802302,0.000558792,0.143050781,36.621,2.928447066,
107.0275,295.8226929,95.809286,0.000484772,0.124101563,31.77,2.540530387,
107.0275,295.8226929,95.830238,0.000480606,0.123035156,31.497,2.518699578,
107.0275,295.8226929,95.857301,0.000550476,0.140921875,36.076,2.884865415,
107.0275,295.8226929,95.865158,0.000573532,0.146824219,37.587,3.005694544,
107.0275,295.8226929,95.88,0.000591309,0.151375,38.752,3.098855321,
107.0275,295.8226929,95.90619,0.01763858,4.515476563,131.962,92.43804177,
107.0275,295.8226929,96.043252,0.003206268,0.820804688,210.126,16.80300561,
107.0275,295.8226929,96.174204,0.000718307,0.183886719,47.075,3.764415107,
107.0275,295.8226929,96.197775,0.001111832,0.284628906,72.865,5.826746825,
107.0275,295.8226929,96.334837,0.00044487,0.113886719,29.155,2.331418427,
107.0424167,295.8226845,95.77,0.040119614,10.27062109,69.279,210.253799,
107.0424167,295.8226845,95.796191,0.000703735,0.18015625,46.12,3.68804726,
107.0424167,295.8226845,95.802302,0.000557678,0.142765625,36.548,2.922609524,
107.0424167,295.8226845,95.809286,0.000486374,0.124511719,31.875,2.548926852,
107.0424167,295.8226845,95.830238,0.000482178,0.1234375,31.6,2.52693611,
107.0424167,295.8226845,95.857301,0.000549362,0.140636719,36.003,2.879027873,
107.0424167,295.8226845,95.865158,0.000572098,0.146457031,37.493,2.998177708,
107.0424167,295.8226845,95.88,0.000591522,0.151429688,38.766,3.09997485,
107.0424167,295.8226845,95.90619,0.017637726,4.515257813,131.906,92.43356366,
107.0424167,295.8226845,96.043252,0.003204681,0.820398438,210.022,16.79468911,
107.0424167,295.8226845,96.174204,0.000719925,0.184300781,47.181,3.772891539,
107.0424167,295.8226845,96.197775,0.001112366,0.284765625,72.9,5.829545647,
107.0424167,295.8226845,96.334837,0.000446426,0.114285156,29.257,2.339574993,
107.0573333,295.8226762,95.77,0.010962006,2.806273438,206.406,57.44829314,
107.0573333,295.8226762,95.789118,0.000190582,0.048789063,12.49,0.998779494,
107.0573333,295.8226762,95.79607,0.000225784,0.057800781,14.797,1.183261824,
107.0573333,295.8226762,95.802153,0.000145096,0.037144531,9.509,0.760399857,
107.0573333,295.8226762,95.809105,0.000127228,0.032570313,8.338,0.666759281,
107.0573333,295.8226762,95.816926,0.000122589,0.031382813,8.034,0.642449516,
107.0573333,295.8226762,95.829962,0.000153122,0.039199219,10.035,0.802462148,
107.0573333,295.8226762,95.850818,0.00011763,0.030113281,7.709,0.616460458,
107.0573333,295.8226762,95.862115,0.000294769,0.075460938,19.318,1.544789613,
107.0573333,295.8226762,95.961182,0.000858139,0.219683594,56.239,4.497226579,
107.0573333,295.8226762,95.989859,0.000116638,0.029859375,7.644,0.611262646,
107.0573333,295.8226762,96.000287,0.000127014,0.032515625,8.324,0.665639753,
107.0573333,295.8226762,96.027227,0.00047998,0.122875,31.456,2.515420958,
107.0573333,295.8226762,96.045476,0.002150421,0.550507813,140.93,11.26965525,
107.0573333,295.8226762,96.069808,0.000896133,0.229410156,58.729,4.696342748,
107.0573333,295.8226762,96.097616,0.000264297,0.067660156,17.321,1.385096847,
107.0573333,295.8226762,96.141936,0.000125214,0.032054688,8.206,0.656203725,
107.0573333,295.8226762,96.766754,0.000115936,0.029679688,7.598,0.607584195,
107.07225,295.8226679,95.77,0.010427124,2.66934375,171.352,54.64515332,
107.07225,295.8226679,95.789311,0.000398834,0.102101563,26.138,2.090160002,
107.07225,295.8226679,95.796667,0.000308624,0.079007813,20.226,1.617399043,
107.07225,295.8226679,95.810461,0.000147079,0.037652344,9.639,0.77079548,
107.07225,295.8226679,95.818737,0.000134674,0.034476563,8.826,0.705782852,
107.07225,295.8226679,95.824254,0.000112335,0.028757813,7.362,0.588712141,
107.07225,295.8226679,95.846324,0.000124405,0.031847656,8.153,0.65196551,
107.07225,295.8226679,95.96127,0.000587494,0.150398438,38.502,3.078863738,
107.07225,295.8226679,95.991616,0.000186722,0.047800781,12.237,0.978548012,
107.07225,295.8226679,96.023801,0.001630356,0.417371094,106.847,8.54416274,
107.07225,295.8226679,96.045871,0.003242905,0.830183594,212.527,16.99500477,
107.07225,295.8226679,96.067021,0.000630447,0.161394531,41.317,3.303968964,
107.07225,295.8226679,96.097367,0.000112869,0.028894531,7.397,0.591510962,
107.07225,295.8226679,96.321742,0.0001315,0.033664063,8.618,0.689149854,
107.0871667,295.8226595,95.77,0.01180722,3.022648438,5.798,61.87778824,
107.0871667,295.8226595,95.796317,0.000256912,0.065769531,16.837,1.346393142,
107.0871667,295.8226595,95.803577,0.000187454,0.047988281,12.285,0.982386396,
107.0871667,295.8226595,95.810836,0.000143112,0.036636719,9.379,0.750004234,
107.0871667,295.8226595,95.824448,0.000142349,0.036441406,9.329,0.746005917,
107.0871667,295.8226595,95.860747,0.000175797,0.045003906,11.521,0.921292118,
107.0871667,295.8226595,95.961476,0.000899994,0.230398438,58.982,4.71657423,
107.0871667,295.8226595,95.975088,0.000170288,0.04359375,11.16,0.892424272,
107.0871667,295.8226595,95.989608,0.000161636,0.041378906,10.593,0.847083361,
107.0871667,295.8226595,95.99596,0.000152283,0.038984375,9.98,0.798063999,
107.0871667,295.8226595,96.023184,0.001302597,0.333464844,85.367,6.826485916,
107.0871667,295.8226595,96.045871,0.002720932,0.696558594,178.319,14.25951646,
107.0871667,295.8226595,96.060391,0.000479599,0.122777344,31.431,2.5134218,
107.0871667,295.8226595,96.070373,0.000714508,0.182914063,46.826,3.744503491,
107.0871667,295.8226595,96.093967,0.000130447,0.033394531,8.549,0.683632177,
107.0871667,295.8226595,96.103042,0.000134491,0.034429688,8.814,0.704823256,
107.0871667,295.8226595,96.135711,0.000155136,0.039714844,10.167,0.813017704,
107.1020833,295.8226512,95.77,0.036343246,9.303871094,77.791,190.4630913,
107.1020833,295.8226512,95.796797,0.000690002,0.176640625,45.22,3.61607756,
107.1020833,295.8226512,95.803266,0.000587402,0.150375,38.496,3.07838394,
107.1020833,295.8226512,95.811582,0.000697815,0.178640625,45.732,3.657020323,
107.1020833,295.8226512,95.824519,0.000549957,0.140789063,36.042,2.88214656,
107.1020833,295.8226512,95.833759,0.000411087,0.105238281,26.941,2.154372967,
107.1020833,295.8226512,95.842076,0.000398682,0.1020625,26.128,2.089360338,
107.1020833,295.8226512,95.854088,0.000787338,0.201558594,51.599,4.126182796,
107.1020833,295.8226512,95.88643,0.001199631,0.307105469,78.619,6.286873103,
107.1020833,295.8226512,95.905835,0.017406601,4.456089844,116.759,91.22231362,
107.1020833,295.8226512,95.926164,0.000794006,0.203265625,52.036,4.161128083,
107.1020833,295.8226512,95.961278,0.000417953,0.106996094,27.391,2.190357816,
107.1020833,295.8226512,96.042595,0.003838791,0.982730469,251.579,20.11784999,
107.1020833,295.8226512,96.104506,0.000539948,0.138226563,35.386,2.829688646,
107.1020833,295.8226512,96.147012,0.00051619,0.132144531,33.829,2.705181066,
107.1020833,295.8226512,96.177506,0.000874298,0.223820313,57.298,4.581910926,
107.1020833,295.8226512,96.195987,0.001920807,0.491726563,125.882,10.06632188,
107.1020833,295.8226512,96.331822,0.000797546,0.204171875,52.268,4.179680273,
107.117,295.8226429,95.77,0.037417419,9.578859375,148.188,196.0924812,
107.117,295.8226429,95.795494,0.000772552,0.197773438,50.63,4.04869542,
107.117,295.8226429,95.802526,0.000518051,0.132621094,33.951,2.714936958,
107.117,295.8226429,95.809559,0.000426926,0.109292969,27.979,2.23737802,
107.117,295.8226429,95.816591,0.000436356,0.111707031,28.597,2.286797214,
107.117,295.8226429,95.822745,0.000463837,0.118742188,30.398,2.430816579,
107.117,295.8226429,95.83681,0.000534088,0.136726563,35.002,2.798981574,
107.117,295.8226429,95.845601,0.000419113,0.107292969,27.467,2.196435258,
107.117,295.8226429,95.857908,0.000575256,0.147265625,37.7,3.014730739,
107.117,295.8226429,95.879885,0.000621826,0.1591875,40.752,3.258787986,
107.117,295.8226429,95.906257,0.018759674,4.802476563,205.434,98.31332816,
107.117,295.8226429,96.042515,0.004052689,1.037488281,9.597,21.23881804,
107.117,295.8226429,96.178772,0.001025208,0.262453125,67.188,5.372777955,
107.117,295.8226429,96.198112,0.001001511,0.256386719,65.635,5.248590241,
107.1319167,295.8226345,95.77,0.036803482,9.421691406,107.953,192.8750358,
107.1319167,295.8226345,95.7945,0.000568298,0.145484375,37.244,2.978266092,
107.1319167,295.8226345,95.801259,0.00041925,0.107328125,27.476,2.197154955,
107.1319167,295.8226345,95.827448,0.000538498,0.137855469,35.291,2.822091844,
107.1319167,295.8226345,95.853637,0.000725922,0.185835938,47.574,3.804318307,
107.1319167,295.8226345,95.881516,0.000529236,0.135484375,34.684,2.77355228,
107.1319167,295.8226345,95.906861,0.018413681,4.713902344,182.759,96.50009157,
107.1319167,295.8226345,95.936429,0.000478363,0.122460938,31.35,2.506944527,
107.1319167,295.8226345,96.042876,0.003776978,0.96690625,247.528,19.79390638,
107.1319167,295.8226345,96.170443,0.000451035,0.115464844,29.559,2.363724826,
107.1319167,295.8226345,96.181426,0.000878265,0.224835938,57.558,4.602702172,
107.1319167,295.8226345,96.194943,0.000800339,0.204886719,52.451,4.194314112,
107.1319167,295.8226345,96.329269,0.000404114,0.103453125,26.484,2.117828353,
107.1468333,295.8226262,95.77,0.038020462,9.733238281,187.709,199.2528307,
107.1468333,295.8226262,95.796098,0.000552826,0.141523438,36.23,2.89718023,
107.1468333,295.8226262,95.803298,0.000542923,0.138988281,35.581,2.84528208,
107.1468333,295.8226262,95.810497,0.000450516,0.115332031,29.525,2.36100597,
107.1468333,295.8226262,95.852794,0.000682281,0.174664063,44.714,3.575614596,
107.1468333,295.8226262,95.90589,0.01833992,4.695019531,177.925,96.11353432,
107.1468333,295.8226262,95.931088,0.000487091,0.124695313,31.922,2.552685269,
107.1468333,295.8226262,96.04178,0.003963409,1.014632813,3.746,20.77093503,
107.1468333,295.8226262,96.178571,0.000876892,0.224484375,57.468,4.595505202,
107.1468333,295.8226262,96.197469,0.000911407,0.233320313,59.73,4.776389047,
107.1468333,295.8226262,96.334259,0.000526566,0.134800781,34.509,2.759558172,
107.16175,295.8226179,95.77,0.03817189,9.772003906,197.633,200.0464165,
107.16175,295.8226179,95.796411,0.000684006,0.175105469,44.827,3.584650792,
107.16175,295.8226179,95.803697,0.000572144,0.14646875,37.496,2.998417607,
107.16175,295.8226179,95.810983,0.000456345,0.116824219,29.907,2.391553109,
107.16175,295.8226179,95.81918,0.000439362,0.112476563,28.794,2.302550581,
107.16175,295.8226179,95.840127,0.00044603,0.114183594,29.231,2.337495868,
107.16175,295.8226179,95.854698,0.000678131,0.173601563,44.442,3.553863754,
107.16175,295.8226179,95.879288,0.000402084,0.102933594,26.351,2.107192831,
107.16175,295.8226179,95.906611,0.018669037,4.779273438,199.494,97.83832815,
107.16175,295.8226179,95.95579,0.00050264,0.128675781,32.941,2.634170962,
107.16175,295.8226179,96.042311,0.004028702,1.031347656,8.025,21.11311097,
107.16175,295.8226179,96.170725,0.000432892,0.110820313,28.37,2.268644856,
107.16175,295.8226179,96.182564,0.000542206,0.138804688,35.534,2.841523663,
107.16175,295.8226179,96.198047,0.000416977,0.106746094,27.327,2.185239971,
107.1766667,295.8226095,95.77,0.037927475,9.709433594,181.615,198.7655158,
107.1766667,295.8226095,95.79703,0.000556549,0.142476563,36.474,2.916692015,
107.1766667,295.8226095,95.804238,0.000495911,0.126953125,32.5,2.59890581,
107.1766667,295.8226095,95.810545,0.000423904,0.108519531,27.781,2.221544686,
107.1766667,295.8226095,95.82406,0.000425247,0.108863281,27.869,2.228581723,
107.1766667,295.8226095,95.83307,0.00045079,0.115402344,29.543,2.362445364,
107.1766667,295.8226095,95.853793,0.000607727,0.155578125,39.828,3.184899095,
107.1766667,295.8226095,95.906952,0.018601868,4.762078125,195.092,97.48631635,
107.1766667,295.8226095,95.93218,0.000452911,0.115945313,29.682,2.373560684,
107.1766667,295.8226095,95.982637,0.000466446,0.119410156,30.569,2.444490821,
107.1766667,295.8226095,96.043004,0.003855545,0.987019531,252.677,20.20565302,
107.1766667,295.8226095,96.179956,0.00095401,0.244226563,62.522,4.999655047,
107.1766667,295.8226095,96.19257,0.001048218,0.26834375,68.696,5.493367185,
107.1766667,295.8226095,96.316909,0.000470398,0.120421875,30.828,2.465202102,
107.1766667,295.8226095,96.329523,0.00043541,0.111464844,28.535,2.281839301,
107.1915833,295.8226012,95.77,0.03804158,9.738644531,189.093,199.3635041,
107.1915833,295.8226012,95.797062,0.000624588,0.159894531,40.933,3.273261893,
107.1915833,295.8226012,95.803376,0.000501724,0.128441406,32.881,2.629372982,
107.1915833,295.8226012,95.824124,0.000399521,0.102277344,26.183,2.093758487,
107.1915833,295.8226012,95.853893,0.000630814,0.161488281,41.341,3.305888156,
107.1915833,295.8226012,95.906213,0.018369354,4.702554688,179.854,96.26778937,
107.1915833,295.8226012,95.932373,0.000574265,0.147011719,37.635,3.009532928,
107.1915833,295.8226012,95.946806,0.000420959,0.107765625,27.588,2.206111184,
107.1915833,295.8226012,96.024385,0.000425659,0.10896875,27.896,2.230740814,
107.1915833,295.8226012,96.042426,0.003896606,0.99753125,255.368,20.42084242,
107.1915833,295.8226012,96.05686,0.000389053,0.099597656,25.497,2.038901582,
107.1915833,295.8226012,96.179542,0.000834061,0.213519531,54.661,4.371039707,
107.1915833,295.8226012,96.202996,0.000430099,0.110105469,28.187,2.254011017,
107.2065,295.8225929,95.77,0.037724731,9.65753125,168.328,197.7030032,
107.2065,295.8225929,95.795975,0.000471252,0.120640625,30.884,2.469680216,
107.2065,295.8225929,95.80314,0.000522461,0.13375,34.24,2.738047228,
107.2065,295.8225929,95.810306,0.00042392,0.108523438,27.782,2.221624652,
107.2065,295.8225929,95.822845,0.000434738,0.111292969,28.491,2.278320782,
107.2065,295.8225929,95.852403,0.000662949,0.169714844,43.447,3.474297253,
107.2065,295.8225929,95.906144,0.017891296,4.580171875,148.524,93.76244417,
107.2065,295.8225929,95.931223,0.00061145,0.15653125,40.072,3.20441088,
107.2065,295.8225929,96.024375,0.000461365,0.118109375,30.236,2.417862033,
107.2065,295.8225929,96.042288,0.003758347,0.962136719,246.307,19.69626749,
107.2065,295.8225929,96.108569,0.000441635,0.113058594,28.943,2.314465565,
107.2065,295.8225929,96.176641,0.001013321,0.259410156,66.409,5.310484182,
107.2065,295.8225929,96.19545,0.001326996,0.339710938,86.966,6.954352081,
107.2214167,295.8225845,95.77,0.038302826,9.805523438,206.214,200.7326076,
107.2214167,295.8225845,95.797587,0.000631378,0.161632813,41.378,3.308846911,
107.2214167,295.8225845,95.804024,0.000634628,0.162464844,41.591,3.325879739,
107.2214167,295.8225845,95.81138,0.000498627,0.127648438,32.678,2.613139817,
107.2214167,295.8225845,95.819656,0.000502014,0.128515625,32.9,2.630892343,
107.2214167,295.8225845,95.826093,0.000452286,0.115785156,29.641,2.370282065,
107.2214167,295.8225845,95.842646,0.000412399,0.105574219,27.027,2.161250071,
107.2214167,295.8225845,95.85552,0.000771164,0.197417969,50.539,4.041418484,
107.2214167,295.8225845,95.863796,0.00044635,0.114265625,29.252,2.339175161,
107.2214167,295.8225845,95.871152,0.000425354,0.108890625,27.876,2.229141488,
107.2214167,295.8225845,95.878509,0.000479996,0.122878906,31.457,2.515500925,
107.2214167,295.8225845,95.886785,0.001136337,0.290902344,74.471,5.955172756,
107.2214167,295.8225845,95.906096,0.018162415,4.649578125,166.292,95.18328597,
107.2214167,295.8225845,95.932763,0.000546951,0.140019531,35.845,2.866393192,
107.2214167,295.8225845,95.985179,0.000403305,0.103246094,26.431,2.113590137,
107.2214167,295.8225845,96.042192,0.003722076,0.952851563,243.93,19.50618751,
107.2214167,295.8225845,96.172771,0.001189697,0.3045625,77.968,6.234815021,
107.2214167,295.8225845,96.1976,0.002360168,0.604203125,154.676,12.36887246,
107.2214167,295.8225845,96.310707,0.000519287,0.1329375,34.032,2.721414231,
107.2214167,295.8225845,96.334616,0.001008469,0.258167969,66.091,5.285054888,
107.2363333,295.8225762,95.77,0.037855133,9.690914063,176.874,198.3863954,
107.2363333,295.8225762,95.796317,0.000733292,0.187722656,48.057,3.842942046,
107.2363333,295.8225762,95.803577,0.000486252,0.124480469,31.867,2.548287121,
107.2363333,295.8225762,95.809929,0.000563797,0.144332031,36.949,2.954676023,
107.2363333,295.8225762,95.823541,0.000476578,0.122003906,31.233,2.497588466,
107.2363333,295.8225762,95.854395,0.000641205,0.164148438,42.022,3.360345229,
107.2363333,295.8225762,95.86347,0.000402664,0.103082031,26.389,2.110231551,
107.2363333,295.8225762,95.877989,0.000507721,0.129976563,33.274,2.660799751,
107.2363333,295.8225762,95.906121,0.018213211,4.662582031,169.621,95.44949389,
107.2363333,295.8225762,95.932438,0.000666611,0.170652344,43.687,3.493489173,
107.2363333,295.8225762,95.94605,0.000398697,0.102066406,26.129,2.089440305,
107.2363333,295.8225762,96.042242,0.003937881,1.008097656,2.073,20.63715135,
107.2363333,295.8225762,96.111209,0.000493073,0.126226563,32.314,2.584032072,
107.2363333,295.8225762,96.171102,0.000484253,0.12396875,31.736,2.537811532,
107.2363333,295.8225762,96.181085,0.000608383,0.155746094,39.871,3.188337647,
107.2363333,295.8225762,96.196512,0.001498383,0.383585938,98.198,7.852533929,
107.2363333,295.8225762,96.219198,0.00061937,0.158558594,40.591,3.245913407,
107.2363333,295.8225762,96.332632,0.000661652,0.169382813,43.362,3.467500114,
107.25125,295.8225679,95.77,0.038454636,9.844386719,216.163,201.5281927,
107.25125,295.8225679,95.797128,0.000653473,0.167289063,42.826,3.42463816,
107.25125,295.8225679,95.804611,0.000463226,0.118585938,30.358,2.427617925,
107.25125,295.8225679,95.812095,0.000670425,0.171628906,43.937,3.513480756,
107.25125,295.8225679,95.820514,0.000500488,0.128125,32.8,2.622895709,
107.25125,295.8225679,95.826126,0.000466431,0.11940625,30.568,2.444410855,
107.25125,295.8225679,95.85606,0.000847778,0.21703125,55.56,4.44292944,
107.25125,295.8225679,95.871963,0.000429642,0.109988281,28.157,2.251612027,
107.25125,295.8225679,95.878511,0.000422089,0.108054688,27.662,2.212028693,
107.25125,295.8225679,95.88693,0.001381226,0.35359375,90.52,7.238552427,
107.25125,295.8225679,95.906574,0.018686691,4.783792969,200.651,97.93084919,
107.25125,295.8225679,95.932767,0.000424973,0.108792969,27.851,2.227142329,
107.25125,295.8225679,95.947734,0.0004879,0.124902344,31.975,2.556923485,
107.25125,295.8225679,96.042214,0.004036819,1.033425781,8.557,21.15565306,
107.25125,295.8225679,96.176918,0.000785706,0.201140625,51.492,4.117626399,
107.25125,295.8225679,96.195627,0.000743591,0.190359375,48.732,3.896919321,
107.25125,295.8225679,96.218077,0.000660583,0.169109375,43.292,3.461902471,
107.25125,295.8225679,96.325653,0.000452393,0.1158125,29.648,2.370841829,
107.2661667,295.8225595,95.77,0.038661728,9.897402344,229.735,202.6134957,
107.2661667,295.8225595,95.79757,0.000811981,0.207867188,53.214,4.255328423,
107.2661667,295.8225595,95.805175,0.00064415,0.164902344,42.215,3.375778731,
107.2661667,295.8225595,95.812781,0.000548386,0.140386719,35.939,2.873910028,
107.2661667,295.8225595,95.827041,0.000438171,0.112171875,28.716,2.296313207,
107.2661667,295.8225595,95.855561,0.00068251,0.174722656,44.729,3.576814091,
107.2661667,295.8225595,95.879329,0.000521988,0.133628906,34.209,2.735568272,
107.2661667,295.8225595,95.905948,0.018449646,4.723109375,185.116,96.68857222,
107.2661667,295.8225595,95.933517,0.000600143,0.153636719,39.331,3.145155828,
107.2661667,295.8225595,95.941123,0.000451645,0.115621094,29.599,2.366923479,
107.2661667,295.8225595,95.986756,0.00044278,0.113351563,29.018,2.32046304,
107.2661667,295.8225595,96.041895,0.003884018,0.994308594,254.543,20.3548702,
107.2661667,295.8225595,96.109394,0.000446411,0.11428125,29.256,2.339495027,
107.2661667,295.8225595,96.170238,0.000674667,0.172714844,44.215,3.535711396,
107.2661667,295.8225595,96.179744,0.001059418,0.271210938,69.43,5.552062473,
107.2661667,295.8225595,96.194005,0.001590851,0.407257813,104.258,8.337129905,
107.2661667,295.8225595,96.21492,0.000465027,0.119046875,30.476,2.437053953,
107.2661667,295.8225595,96.329952,0.000700958,0.179445313,45.938,3.673493387,
107.2810833,295.8225512,95.77,0.037842636,9.687714844,176.055,198.320903,
107.2810833,295.8225512,95.796285,0.000672363,0.172125,44.064,3.52363648,
107.2810833,295.8225512,95.810787,0.000557495,0.14271875,36.536,2.921649928,
107.2810833,295.8225512,95.841604,0.000420685,0.107695313,27.57,2.20467179,
107.2810833,295.8225512,95.854294,0.000757141,0.193828125,49.62,3.967929424,
107.2810833,295.8225512,95.87786,0.000536346,0.137304688,35.15,2.810816591,
107.2810833,295.8225512,95.905958,0.018099136,4.633378906,162.145,94.85166559,
107.2810833,295.8225512,95.932243,0.0004366,0.111769531,28.613,2.288076675,
107.2810833,295.8225512,95.946745,0.000406738,0.104125,26.656,2.131582562,
107.2810833,295.8225512,96.041916,0.003931259,1.006402344,1.639,20.60244597,
107.2810833,295.8225512,96.170622,0.000736389,0.188515625,48.26,3.859175212,
107.2810833,295.8225512,96.181499,0.000550308,0.140878906,36.065,2.883985785,
107.2810833,295.8225512,96.192376,0.000678253,0.173632813,44.45,3.554503484,
107.2810833,295.8225512,96.20144,0.000523102,0.133914063,34.282,2.741405814,
107.2810833,295.8225512,96.327427,0.000430145,0.110117188,28.19,2.254250916,
107.2810833,295.8225512,96.375466,0.000412415,0.105578125,27.028,2.161330038,
107.296,295.8225429,95.77,0.037686813,9.647824219,165.843,197.5042868,
107.296,295.8225429,95.796222,0.000584457,0.149621094,38.303,3.062950438,
107.296,295.8225429,95.803456,0.000571442,0.146289063,37.45,2.994739156,
107.296,295.8225429,95.81069,0.000430984,0.110332031,28.245,2.258649064,
107.296,295.8225429,95.824253,0.000455627,0.116640625,29.86,2.387794692,
107.296,295.8225429,95.854093,0.000576263,0.147523438,37.766,3.020008517,
107.296,295.8225429,95.905634,0.018009003,4.610304688,156.238,94.37930446,
107.296,295.8225429,95.931856,0.000444702,0.11384375,29.144,2.330538797,
107.296,295.8225429,95.983397,0.000406662,0.104105469,26.651,2.13118273,
107.296,295.8225429,96.042172,0.003883057,0.9940625,254.48,20.34983232,
107.296,295.8225429,96.111797,0.000411835,0.105429688,26.99,2.158291317,
107.296,295.8225429,96.177806,0.000593094,0.151832031,38.869,3.108211382,
107.296,295.8225429,96.19589,0.001379944,0.353265625,90.436,7.231835256,
107.296,295.8225429,96.331524,0.000578751,0.148160156,37.929,3.033043029,
107.296,295.8390538,95.77,0.038044464,9.739382813,189.282,199.3786177,
107.296,295.8390538,95.796765,0.00065863,0.168609375,43.164,3.451666781,
107.296,295.8390538,95.803225,0.000600525,0.153734375,39.356,3.147154986,
107.296,295.8390538,95.810609,0.000525208,0.134453125,34.42,2.752441168,
107.296,295.8390538,95.824452,0.000513,0.131328125,33.62,2.688468102,
107.296,295.8390538,95.844757,0.0004505,0.115328125,29.524,2.360926004,
107.296,295.8390538,95.854909,0.000781647,0.200101563,51.226,4.096355354,
107.296,295.8390538,95.871522,0.000421219,0.107832031,27.605,2.207470612,
107.296,295.8390538,95.887211,0.001330261,0.340546875,87.18,6.971464877,
107.296,295.8390538,95.90567,0.018708511,4.789378906,202.081,98.04520105,
107.296,295.8390538,95.932435,0.000497375,0.127328125,32.596,2.606582578,
107.296,295.8390538,96.042263,0.003945007,1.009921875,2.54,20.67449563,
107.296,295.8390538,96.109637,0.000420044,0.10753125,27.528,2.201313204,
107.296,295.8390538,96.177933,0.000849304,0.217421875,55.66,4.450926073,
107.296,295.8390538,96.200083,0.000440292,0.112714844,28.855,2.307428527,
107.296,295.8390538,96.768606,0.000400864,0.102621094,26.271,2.100795524,
107.2810833,295.8390621,95.77,0.037823044,9.682699219,174.771,198.2182262,
107.2810833,295.8390621,95.796603,0.000728424,0.186476563,47.738,3.817432786,
107.2810833,295.8390621,95.803942,0.000638214,0.163382813,41.826,3.344671828,
107.2810833,295.8390621,95.811281,0.000437683,0.112046875,28.684,2.293754284,
107.2810833,295.8390621,95.819537,0.000429855,0.110042969,28.171,2.252731556,
107.2810833,295.8390621,95.834214,0.000437363,0.111964844,28.663,2.292074991,
107.2810833,295.8390621,95.854396,0.000864395,0.221285156,56.649,4.530012776,
107.2810833,295.8390621,95.870908,0.000516052,0.132109375,33.82,2.704461369,
107.2810833,295.8390621,95.905767,0.018609451,4.764019531,195.589,97.52605962,
107.2810833,295.8390621,95.933288,0.000516907,0.132328125,33.876,2.708939483,
107.2810833,295.8390621,96.042452,0.003895294,0.997195313,255.282,20.41396532,
107.2810833,295.8390621,96.114005,0.000488647,0.12509375,32.024,2.560841835,
107.2810833,295.8390621,96.177302,0.000921356,0.235867188,60.382,4.828527095,
107.2810833,295.8390621,96.196566,0.000539139,0.138019531,35.333,2.82545043,
107.2661667,295.8390704,95.77,0.037626007,9.632257813,161.858,197.185621,
107.2661667,295.8390704,95.79616,0.000445786,0.114121094,29.215,2.336216407,
107.2661667,295.8390704,95.803377,0.000631302,0.161613281,41.373,3.308447079,
107.2661667,295.8390704,95.824124,0.000468033,0.119816406,30.673,2.45280732,
107.2661667,295.8390704,95.843068,0.000406769,0.104132813,26.658,2.131742495,
107.2661667,295.8390704,95.853893,0.000697342,0.178519531,45.701,3.654541366,
107.2661667,295.8390704,95.87013,0.000457626,0.117152344,29.991,2.398270281,
107.2661667,295.8390704,95.906213,0.01834938,4.697441406,178.545,96.16311344,
107.2661667,295.8390704,95.931471,0.000414246,0.106046875,27.148,2.170925998,
107.2661667,295.8390704,95.93959,0.000479965,0.122871094,31.455,2.515340992,
107.2661667,295.8390704,96.042426,0.004114395,1.053285156,13.641,21.56220189,
107.2661667,295.8390704,96.179542,0.00063623,0.162875,41.696,3.334276204,
107.2661667,295.8390704,96.199388,0.000627014,0.160515625,41.092,3.285976539,
107.25125,295.8390788,95.77,0.037075104,9.491226563,125.754,194.2985165,
107.25125,295.8390788,95.796373,0.000604797,0.154828125,39.636,3.169545559,
107.25125,295.8390788,95.802526,0.000506729,0.129722656,33.209,2.65560194,
107.25125,295.8390788,95.809559,0.000535202,0.137011719,35.075,2.804819116,
107.25125,295.8390788,95.817471,0.000444244,0.113726563,29.114,2.328139807,
107.25125,295.8390788,95.830657,0.000465591,0.119191406,30.513,2.440012707,
107.25125,295.8390788,95.850876,0.000616501,0.157824219,40.403,3.230879736,
107.25125,295.8390788,95.872853,0.000446213,0.114230469,29.243,2.338455464,
107.25125,295.8390788,95.880764,0.000605499,0.155007813,39.682,3.17322401,
107.25125,295.8390788,95.906258,0.018243378,4.670304688,171.598,95.60758733,
107.25125,295.8390788,95.931751,0.000415512,0.106371094,27.231,2.177563203,
107.25125,295.8390788,96.042515,0.003678665,0.941738281,241.085,19.2786833,
107.25125,295.8390788,96.177893,0.000930618,0.238238281,60.989,4.877066659,
107.25125,295.8390788,96.194596,0.000944214,0.24171875,61.88,4.948316662,
107.25125,295.8390788,96.331732,0.000543961,0.139253906,35.649,2.850719791,
107.2363333,295.8390871,95.77,0.037938599,9.71228125,182.344,198.8238113,
107.2363333,295.8390871,95.797454,0.00060936,0.155996094,39.935,3.193455493,
107.2363333,295.8390871,95.804776,0.00059407,0.152082031,38.933,3.113329227,
107.2363333,295.8390871,95.811181,0.00046666,0.119464844,30.583,2.44561035,
107.2363333,295.8390871,95.819418,0.000544815,0.139472656,35.705,2.855197906,
107.2363333,295.8390871,95.843211,0.000405884,0.10390625,26.6,2.127104447,
107.2363333,295.8390871,95.855108,0.000857269,0.219460938,56.182,4.492668498,
107.2363333,295.8390871,95.878901,0.000463455,0.118644531,30.373,2.42881742,
107.2363333,295.8390871,95.906355,0.018650208,4.774453125,198.26,97.73964969,
107.2363333,295.8390871,96.04271,0.003876328,0.992339844,254.039,20.31456717,
107.2363333,295.8390871,96.107684,0.0004133,0.105804688,27.086,2.165968085,
107.2363333,295.8390871,96.17815,0.000930725,0.238265625,60.996,4.877626424,
107.2363333,295.8390871,96.195537,0.00165834,0.424535156,108.681,8.690820994,
107.2363333,295.8390871,96.212925,0.000558823,0.143058594,36.623,2.928606999,
107.2363333,295.8390871,96.333722,0.000593689,0.151984375,38.908,3.111330069,
107.2214167,295.8390954,95.77,0.037561951,9.615859375,157.66,196.8499223,
107.2214167,295.8390954,95.796619,0.000573257,0.146753906,37.569,3.00425515,
107.2214167,295.8390954,95.803718,0.000407959,0.1044375,26.736,2.137979869,
107.2214167,295.8390954,95.823239,0.000544632,0.139425781,35.693,2.85423831,
107.2214167,295.8390954,95.85252,0.000414825,0.106195313,27.186,2.173964718,
107.2214167,295.8390954,95.906645,0.018029907,4.61565625,157.608,94.48885834,
107.2214167,295.8390954,95.932377,0.000422729,0.10821875,27.704,2.215387279,
107.2214167,295.8390954,96.024657,0.000396774,0.101574219,26.003,2.079364547,
107.2214167,295.8390954,96.042403,0.003962906,1.014503906,3.713,20.76829614,
107.2214167,295.8390954,96.176386,0.000820847,0.210136719,53.795,4.301788863,
107.2214167,295.8390954,96.185259,0.000756454,0.193652344,49.575,3.964330939,
107.2214167,295.8390954,96.196794,0.001270554,0.325261719,83.267,6.658556617,
107.2214167,295.8390954,96.331664,0.00041301,0.105730469,27.067,2.164448725,
107.2065,295.8391038,95.77,0.035472839,9.081046875,20.748,185.9015718,
107.2065,295.8391038,95.784049,0.003382095,0.865816406,221.649,17.72445766,
107.2065,295.8391038,95.791952,0.001211075,0.310035156,79.369,6.346847853,
107.2065,295.8391038,95.798976,0.000910355,0.233050781,59.661,4.77087137,
107.2065,295.8391038,95.806001,0.000609421,0.156011719,39.939,3.193775358,
107.2065,295.8391038,95.813025,0.000457016,0.116996094,29.951,2.395071628,
107.2065,295.8391038,95.82005,0.000466019,0.119300781,30.541,2.442251764,
107.2065,295.8391038,95.841123,0.000705582,0.180628906,46.241,3.697723186,
107.2065,295.8391038,95.849904,0.000988678,0.253101563,64.794,5.181338555,
107.2065,295.8391038,95.863075,0.000842453,0.215667969,55.211,4.41502119,
107.2065,295.8391038,95.871855,0.001216415,0.311402344,79.719,6.374836069,
107.2065,295.8391038,95.879758,0.001445511,0.370050781,94.733,7.575450587,
107.2065,295.8391038,95.9061,0.016959122,4.341535156,87.433,88.87722095,
107.2065,295.8391038,95.920149,0.002055283,0.526152344,134.695,10.77106517,
107.2065,295.8391038,95.928051,0.000878265,0.224835938,57.558,4.602702172,
107.2065,295.8391038,95.935076,0.000781021,0.199941406,51.185,4.093076734,
107.2065,295.8391038,95.942978,0.000426987,0.109308594,27.983,2.237697885,
107.2065,295.8391038,95.950003,0.000384766,0.0985,25.216,2.016431043,
107.2065,295.8391038,95.974588,0.000461792,0.11821875,30.264,2.42010109,
107.2065,295.8391038,95.989515,0.000458572,0.117394531,30.053,2.403228194,
107.2065,295.8391038,96.003564,0.000461411,0.118121094,30.239,2.418101932,
107.2065,295.8391038,96.042199,0.003797577,0.972179688,248.878,19.90186093,
107.2065,295.8391038,96.053614,0.000658112,0.168476563,43.13,3.448947925,
107.2065,295.8391038,96.069419,0.000428116,0.109597656,28.057,2.243615394,
107.2065,295.8391038,96.096639,0.000377289,0.096585938,24.726,1.97724754,
107.2065,295.8391038,96.108932,0.000384781,0.098503906,25.217,2.016511009,
107.2065,295.8391038,96.142298,0.000364548,0.093324219,23.891,1.910475652,
107.2065,295.8391038,96.176543,0.000958191,0.245296875,62.796,5.021565822,
107.2065,295.8391038,96.19586,0.001309494,0.335230469,85.819,6.862630698,
107.2065,295.8391038,96.312642,0.000453461,0.116085938,29.718,2.376439472,
107.2065,295.8391038,96.332837,0.000451309,0.115535156,29.577,2.365164219,
107.1915833,295.8391121,95.77,0.037813507,9.680257813,174.146,198.1682473,
107.1915833,295.8391121,95.796036,0.000511673,0.130988281,33.533,2.681511031,
107.1915833,295.8391121,95.803219,0.000535522,0.13709375,35.096,2.806498409,
107.1915833,295.8391121,95.853496,0.000706329,0.180820313,46.29,3.701641536,
107.1915833,295.8391121,95.906466,0.018619751,4.76665625,196.264,97.58003689,
107.1915833,295.8391121,95.931605,0.000434448,0.11121875,28.472,2.276801422,
107.1915833,295.8391121,95.938787,0.000422394,0.108132813,27.682,2.213628019,
107.1915833,295.8391121,96.042035,0.00405278,1.037511719,9.603,21.23929784,
107.1915833,295.8391121,96.179399,0.000805725,0.206265625,52.804,4.222542227,
107.1766667,295.8391204,95.77,0.037939941,9.712625,182.432,198.8308483,
107.1766667,295.8391204,95.796443,0.000708527,0.181382813,46.434,3.713156688,
107.1766667,295.8391204,95.803738,0.000573593,0.146839844,37.591,3.006014409,
107.1766667,295.8391204,95.811033,0.000475357,0.121691406,31.153,2.49119116,
107.1766667,295.8391204,95.825622,0.000426285,0.109128906,27.937,2.234019434,
107.1766667,295.8391204,95.853889,0.000714188,0.182832031,46.805,3.742824198,
107.1766667,295.8391204,95.87942,0.000456619,0.116894531,29.925,2.392992503,
107.1766667,295.8391204,95.906775,0.018893661,4.836777344,214.215,99.01551253,
107.1766667,295.8391204,95.933218,0.000573715,0.146871094,37.599,3.00665414,
107.1766667,295.8391204,95.959662,0.000433929,0.111085938,28.438,2.274082567,
107.1766667,295.8391204,96.02349,0.000443161,0.113449219,29.043,2.322462198,
107.1766667,295.8391204,96.042638,0.004072815,1.042640625,10.916,21.34429363,
107.1766667,295.8391204,96.171207,0.000802124,0.20534375,52.568,4.203670172,
107.1766667,295.8391204,96.183061,0.000833359,0.213339844,54.615,4.367361255,
107.1766667,295.8391204,96.194914,0.001075455,0.275316406,70.481,5.636107088,
107.1766667,295.8391204,96.330778,0.000466766,0.119492188,30.59,2.446170114,
107.16175,295.8391288,95.77,0.037296021,9.54778125,140.232,195.4562691,
107.16175,295.8391288,95.794557,0.000695465,0.178039063,45.578,3.644705508,
107.16175,295.8391288,95.801573,0.000654724,0.167609375,42.908,3.431195399,
107.16175,295.8391288,95.809467,0.000475494,0.121726563,31.162,2.491910857,
107.16175,295.8391288,95.81736,0.000398285,0.101960938,26.102,2.087281214,
107.16175,295.8391288,95.837532,0.0004431,0.113433594,29.039,2.322142333,
107.16175,295.8391288,95.849811,0.000631027,0.161542969,41.355,3.307007685,
107.16175,295.8391288,95.872614,0.000433105,0.110875,28.384,2.269764385,
107.16175,295.8391288,95.879631,0.000528381,0.135265625,34.628,2.769074165,
107.16175,295.8391288,95.905942,0.018266525,4.676230469,173.115,95.72889626,
107.16175,295.8391288,96.041884,0.003918701,1.0031875,0.816,20.53663367,
107.16175,295.8391288,96.171687,0.001268707,0.324789063,83.146,6.648880691,
107.16175,295.8391288,96.195367,0.001235901,0.316390625,80.996,6.476953076,
107.16175,295.8391288,96.308506,0.000509735,0.130492188,33.406,2.671355307,
107.16175,295.8391288,96.330432,0.000664398,0.170085938,43.542,3.481894054,
107.1468333,295.8391371,95.77,0.038873871,9.951710938,243.638,203.7252677,
107.1468333,295.8391371,95.797398,0.000826385,0.211554688,54.158,4.330816641,
107.1468333,295.8391371,95.804011,0.000485504,0.124289063,31.818,2.544368771,
107.1468333,295.8391371,95.81157,0.000522308,0.133710938,34.23,2.737247565,
107.1468333,295.8391371,95.820072,0.000456207,0.116789063,29.898,2.390833412,
107.1468333,295.8391371,95.826686,0.000480865,0.123101563,31.514,2.520059006,
107.1468333,295.8391371,95.855973,0.000808151,0.206886719,52.963,4.235256874,
107.1468333,295.8391371,95.87109,0.000417236,0.1068125,27.344,2.186599399,
107.1468333,295.8391371,95.878648,0.000478622,0.122527344,31.367,2.508303955,
107.1468333,295.8391371,95.906046,0.018767914,4.804585938,205.974,98.35650998,
107.1468333,295.8391371,95.933444,0.000807495,0.20671875,52.92,4.231818322,
107.1468333,295.8391371,95.961787,0.00043219,0.110640625,28.324,2.264966405,
107.1468333,295.8391371,96.042092,0.004022842,1.029847656,7.641,21.08240389,
107.1468333,295.8391371,96.177193,0.000891739,0.228285156,58.441,4.673312444,
107.1468333,295.8391371,96.194199,0.001542542,0.394890625,101.092,8.083956496,
107.1468333,295.8391371,96.330245,0.000696854,0.178394531,45.669,3.651982444,
107.1319167,295.8391454,95.77,0.037542419,9.610859375,156.38,196.7475654,
107.1319167,295.8391454,95.795553,0.0005186,0.132761719,33.987,2.717815746,
107.1319167,295.8391454,95.802602,0.000702316,0.179792969,46.027,3.680610391,
107.1319167,295.8391454,95.8167,0.000569351,0.145753906,37.313,2.983783769,
107.1319167,295.8391454,95.849301,0.000639282,0.16365625,41.896,3.350269471,
107.1319167,295.8391454,95.857231,0.000469528,0.120199219,30.771,2.460644021,
107.1319167,295.8391454,95.873091,0.000557175,0.142636719,36.515,2.919970635,
107.1319167,295.8391454,95.88014,0.00048233,0.123476563,31.61,2.527735774,
107.1319167,295.8391454,95.906574,0.018498779,4.7356875,188.336,96.94606381,
107.1319167,295.8391454,96.042267,0.003903519,0.999300781,255.821,20.45706717,
107.1319167,295.8391454,96.174435,0.001157471,0.2963125,75.856,6.065926126,
107.1319167,295.8391454,96.183246,0.001154373,0.295519531,75.653,6.049692961,
107.1319167,295.8391454,96.1947,0.002067673,0.529324219,135.507,10.83599783,
107.1319167,295.8391454,96.330393,0.000710983,0.182011719,46.595,3.726031268,
107.117,295.8391538,95.77,0.037460052,9.589773438,150.982,196.3159072,
107.117,295.8391538,95.795494,0.00061351,0.157058594,40.207,3.215206335,
107.117,295.8391538,95.801647,0.000517471,0.132472656,33.913,2.711898238,
107.117,295.8391538,95.809559,0.000551941,0.141296875,36.172,2.892542183,
107.117,295.8391538,95.837689,0.00041835,0.107097656,27.417,2.192436941,
107.117,295.8391538,95.847359,0.000672638,0.172195313,44.082,3.525075874,
107.117,295.8391538,95.857029,0.000402191,0.102960938,26.358,2.107752595,
107.117,295.8391538,95.864941,0.000589081,0.150804688,38.606,3.087180237,
107.117,295.8391538,95.879885,0.000636642,0.162980469,41.723,3.336435295,
107.117,295.8391538,95.906257,0.018445831,4.722132813,184.866,96.66858063,
107.117,295.8391538,95.931751,0.000577118,0.147742188,37.822,3.024486632,
107.117,295.8391538,96.042515,0.00396051,1.013890625,3.556,20.75574143,
107.117,295.8391538,96.177893,0.000855667,0.219050781,56.077,4.484272034,
107.117,295.8391538,96.196354,0.001212952,0.310515625,79.492,6.356683712,
107.117,295.8391538,96.315908,0.000394852,0.101082031,25.877,2.069288789,
107.117,295.8391538,96.335248,0.000393524,0.100742188,25.79,2.062331718,
107.1020833,295.8391621,95.77,0.038809784,9.935304688,239.438,203.3894091,
107.1020833,295.8391621,95.79733,0.000797073,0.204050781,52.237,4.177201316,
107.1020833,295.8391621,95.804869,0.000634293,0.162378906,41.569,3.32412048,
107.1020833,295.8391621,95.812408,0.000657257,0.168257813,43.074,3.444469811,
107.1020833,295.8391621,95.826545,0.000488342,0.125015625,32.004,2.559242509,
107.1020833,295.8391621,95.835026,0.000473755,0.12128125,31.048,2.482794695,
107.1020833,295.8391621,95.843508,0.000570145,0.145957031,37.365,2.987942018,
107.1020833,295.8391621,95.85576,0.000822937,0.210671875,53.932,4.31274425,
107.1020833,295.8391621,95.871781,0.000517456,0.13246875,33.912,2.711818271,
107.1020833,295.8391621,95.87932,0.000537537,0.137609375,35.228,2.817053965,
107.1020833,295.8391621,95.887802,0.001328644,0.340132813,87.074,6.962988445,
107.1020833,295.8391621,95.90665,0.019333542,4.949386719,243.043,101.320782,
107.1020833,295.8391621,95.93398,0.000539017,0.137988281,35.325,2.824810699,
107.1020833,295.8391621,96.0433,0.004276505,1.094785156,24.265,22.41176421,
107.1020833,295.8391621,96.177124,0.001144165,0.29290625,74.984,5.996195484,
107.1020833,295.8391621,96.313774,0.000415131,0.106273438,27.206,2.175564045,
107.1020833,295.8391621,96.768019,0.000394821,0.101074219,25.875,2.069128856,
107.0871667,295.8391704,95.77,0.038755264,9.921347656,235.865,203.1036894,
107.0871667,295.8391704,95.797262,0.000792282,0.202824219,51.923,4.152091888,
107.0871667,295.8391704,95.804783,0.000595169,0.152363281,39.005,3.119086803,
107.0871667,295.8391704,95.812303,0.000707474,0.181113281,46.365,3.707639011,
107.0871667,295.8391704,95.827345,0.000591431,0.15140625,38.76,3.099495052,
107.0871667,295.8391704,95.842386,0.000530655,0.135847656,34.777,2.780989149,
107.0871667,295.8391704,95.855547,0.000923126,0.236320313,60.498,4.83780319,
107.0871667,295.8391704,95.864948,0.000515121,0.131871094,33.759,2.699583422,
107.0871667,295.8391704,95.879049,0.000739655,0.189351563,48.474,3.876288007,
107.0871667,295.8391704,95.907251,0.019805817,5.070289063,17.994,103.7958199,
107.0871667,295.8391704,95.934514,0.000425781,0.109,27.904,2.231380545,
107.0871667,295.8391704,96.043563,0.004247101,1.087257813,22.338,22.25766908,
107.0871667,295.8391704,96.177055,0.002322815,0.594640625,152.228,12.17311488,
107.0871667,295.8391704,96.198676,0.001856049,0.475148438,121.638,9.726944766,
107.0871667,295.8391704,96.313366,0.000831863,0.212957031,54.517,4.359524555,
107.0871667,295.8391704,96.334988,0.000968781,0.248007813,63.49,5.077062457,
107.07225,295.8391788,95.77,0.036542221,9.354808594,90.831,191.5058523,
107.07225,295.8391788,95.795612,0.000640854,0.164058594,41.999,3.358506003,
107.07225,295.8391788,95.802677,0.000522141,0.133667969,34.219,2.736367935,
107.07225,295.8391788,95.809743,0.000505203,0.129332031,33.109,2.647605306,
107.07225,295.8391788,95.817691,0.000422424,0.108140625,27.684,2.213787952,
107.07225,295.8391788,95.82299,0.000567505,0.14528125,37.192,2.974107842,
107.07225,295.8391788,95.830056,0.000388428,0.0994375,25.456,2.035622963,
107.07225,295.8391788,95.845953,0.000412872,0.105695313,27.058,2.163729028,
107.07225,295.8391788,95.857434,0.000663071,0.169746094,43.455,3.474936983,
107.07225,295.8391788,95.872448,0.000475494,0.121726563,31.162,2.491910857,
107.07225,295.8391788,95.879513,0.000649643,0.166308594,42.575,3.404566611,
107.07225,295.8391788,95.906009,0.017651199,4.518707031,132.789,92.50417393,
107.07225,295.8391788,95.931621,0.00040918,0.10475,26.816,2.144377175,
107.07225,295.8391788,96.0429,0.003910583,1.001109375,0.284,20.49409159,
107.07225,295.8391788,96.114437,0.000452072,0.115730469,29.627,2.369162536,
107.07225,295.8391788,96.162129,0.000389648,0.09975,25.536,2.042020269,
107.07225,295.8391788,96.176259,0.001175415,0.30090625,77.032,6.159966533,
107.07225,295.8391788,96.201871,0.001019791,0.261066406,66.833,5.344389907,
107.07225,295.8391788,96.214236,0.00052623,0.134714844,34.487,2.757798913,
107.07225,295.8391788,96.311385,0.000415588,0.106390625,27.236,2.177963035,
107.07225,295.8391788,96.340529,0.000541473,0.138617188,35.486,2.837685279,
107.0573333,295.8391871,95.77,0.017884613,4.578460938,148.086,93.72741892,
107.0573333,295.8391871,95.803306,0.000826477,0.211578125,54.164,4.331296439,
107.0573333,295.8391871,95.815333,0.003299789,0.844746094,216.255,17.29311926,
107.0573333,295.8391871,95.847715,0.00018486,0.047324219,12.115,0.96879212,
107.0573333,295.8391871,95.881946,0.000238937,0.061167969,15.659,1.252192802,
107.0573333,295.8391871,95.906926,0.005560928,1.423597656,108.441,29.14301022,
107.0573333,295.8391871,96.009621,0.000493362,0.126300781,32.333,2.585551432,
107.0573333,295.8391871,96.042002,0.001019623,0.261023438,66.822,5.343510277,
107.0573333,295.8391871,96.072533,0.001741379,0.445792969,114.123,9.125997776,
107.0573333,295.8391871,96.094737,0.002400116,0.614429688,157.294,12.57822432,
107.0573333,295.8391871,96.146547,0.000664734,0.170171875,43.564,3.483653314,
107.0573333,295.8391871,96.156724,0.000226166,0.057898438,14.822,1.185260982,
107.0573333,295.8391871,96.171526,0.000186325,0.047699219,12.211,0.976468887,
107.0573333,295.8391871,96.203908,0.000358948,0.091890625,23.524,1.881128008,
107.0573333,295.8391871,96.340834,0.000192917,0.049386719,12.643,1.011014343,
107.0424167,295.8391954,95.77,0.009870697,2.526898438,134.886,51.72910103,
107.0424167,295.8391954,95.795642,0.000188675,0.048300781,12.365,0.988783703,
107.0424167,295.8391954,95.802716,0.000122055,0.031246094,7.999,0.639650695,
107.0424167,295.8391954,95.816863,0.000111465,0.028535156,7.305,0.58415406,
107.0424167,295.8391954,95.838084,0.000111832,0.028628906,7.329,0.586073252,
107.0424167,295.8391954,95.963641,0.000617264,0.158019531,40.453,3.234878053,
107.0424167,295.8391954,95.999009,0.000147537,0.037769531,9.669,0.77319447,
107.0424167,295.8391954,96.008735,0.000159485,0.040828125,10.452,0.835808108,
107.0424167,295.8391954,96.025535,0.001530411,0.391785156,100.297,8.020383261,
107.0424167,295.8391954,96.049408,0.002734909,0.700136719,179.235,14.33276562,
107.0424167,295.8391954,96.070629,0.001140121,0.291871094,74.719,5.975004406,
107.0424167,295.8391954,96.098039,0.000102234,0.026171875,6.7,0.535774428,
107.0424167,295.8391954,96.130755,0.000119873,0.0306875,7.856,0.628215509,
107.0424167,295.8391954,96.150207,0.000119034,0.030472656,7.801,0.623817361,
107.0275,295.8392038,95.77,0.009128723,2.336953125,86.26,47.84065814,
107.0275,295.8392038,95.803942,0.000174942,0.044785156,11.465,0.916814003,
107.0275,295.8392038,95.825041,0.000104156,0.026664063,6.826,0.545850186,
107.0275,295.8392038,95.838801,9.54E-05,0.024425781,6.253,0.500029478,
107.0275,295.8392038,95.84614,0.000117203,0.030003906,7.681,0.614221401,
107.0275,295.8392038,95.862652,0.000155151,0.03971875,10.168,0.81309767,
107.0275,295.8392038,95.944296,9.94E-05,0.025449219,6.515,0.520980657,
107.0275,295.8392038,95.961726,0.000709076,0.181523438,46.47,3.716035476,
107.0275,295.8392038,95.979155,0.000100372,0.025695313,6.578,0.526018536,
107.0275,295.8392038,95.996585,0.000387665,0.099242188,25.406,2.031624646,
107.0275,295.8392038,96.02594,0.000780853,0.199898438,51.174,4.092197105,
107.0275,295.8392038,96.047956,0.006737061,1.7246875,185.52,35.30673517,
107.0275,295.8392038,96.07089,0.000360092,0.092183594,23.599,1.887125483,
107.0275,295.8392038,96.080981,0.000153534,0.039304688,10.062,0.804621239,
107.0275,295.8392038,96.091989,0.000135727,0.034746094,8.895,0.711300529,
107.0275,295.8392038,96.10208,0.000326279,0.083527344,21.383,1.70992009,
107.0275,295.8392038,96.118592,9.62E-05,0.024636719,6.307,0.50434766,
107.0275,295.8392038,96.134187,0.000171295,0.043851563,11.226,0.89770205,
107.0275,295.8392038,96.238764,0.000114075,0.029203125,7.476,0.597828303,
107.0275,295.8392038,96.325912,0.000176926,0.045292969,11.595,0.927209627,
107.0125833,295.8392121,95.77,0.026502609,6.784667969,200.875,138.8915239,
107.0125833,295.8392121,95.796222,0.000432877,0.110816406,28.369,2.26856489,
107.0125833,295.8392121,95.802552,0.000562698,0.144050781,36.877,2.948918448,
107.0125833,295.8392121,95.814307,0.002173264,0.556355469,142.427,11.38936485,
107.0125833,295.8392121,95.833295,0.000320221,0.081976563,20.986,1.678173456,
107.0125833,295.8392121,95.853188,0.000385666,0.098730469,25.275,2.021149057,
107.0125833,295.8392121,95.905633,0.008703613,2.228125,58.4,45.61279612,
